# .PCD v0.7 - Point Cloud Data file format
VERSION 0.7
FIELDS x y z rgb
SIZE 4 4 4 4
TYPE F F F U
COUNT 1 1 1 1
WIDTH 1102
HEIGHT 1
VIEWPOINT 0 0 0 1 0 0 0
POINTS 1102
DATA ascii
2.8749008 -0.91870695 0.83657563 4285626211
2.9393325 -0.91739756 0.86664134 4285560419
3.05233 -0.89360845 0.87693214 4286086769
2.9456744 -0.88231319 0.84608155 4285626216
2.9765763 -0.8827824 0.8584494 4285560680
3.0524809 -0.88495278 0.87404746 4285823596
3.0602376 -0.8784557 0.87624162 4285889391
2.8955867 -0.82007658 0.85658598 4285888877
2.9162827 -0.80918467 0.87651801 4285889648
2.8307381 -0.76647747 0.87496299 4285823599
3.1606984 -3.0459564 0.93566424 4286809729
2.2562823 -1.9969096 0.92849636 4287007110
2.224668 -1.9540428 0.93020946 4286941317
2.1791689 -1.9138176 0.89609069 4287007110
2.394376 -1.7924874 0.9071905 4287401868
2.4214106 -1.7944323 0.90360099 4287336332
2.3168068 -1.7453109 0.89760602 4287336587
2.3955162 -1.781014 0.92017955 4287402125
2.4201434 -1.7870439 0.90463287 4287336332
2.1960931 -1.6963265 0.91759765 4287204487
2.2314565 -1.7062745 0.89213675 4287336075
2.2828386 -1.7238588 0.91623145 4287401868
2.3337533 -1.7216737 0.90458709 4287467661
2.1487138 -1.6833688 0.91418397 4287138950
2.1757262 -1.6853086 0.9104659 4287204487
2.2521977 -1.6430331 0.89593279 4287533711
2.2845156 -1.6693164 0.91135842 4287467661
2.3095136 -1.6891876 0.91655195 4287533711
2.2531166 -1.6351455 0.89627403 4287533711
2.915843 -1.0919598 0.90773726 4285494373
3.0200663 -1.0907739 0.92858297 4285296990
2.9011769 -1.0804734 0.90014416 4285560164
2.9340861 -1.0677323 0.90577459 4285494369
2.9838076 -1.0550745 0.9031828 4285494624
3.028698 -1.0545692 0.91831946 4285428830
2.9928763 -1.0218351 0.89845908 4285428830
3.0081532 -1.0120637 0.92183429 4285428830
2.9329391 -0.98126632 0.89040345 4285494623
2.9823129 -0.96937513 0.90246946 4285494623
3.0270255 -0.95509195 0.91591322 4285560416
3.0234909 -0.92657781 0.90747446 4285692005
3.0720227 -0.90426922 0.91047472 4285757544
2.9772294 -0.84587574 0.90056092 4285889133
3.0689621 -0.88353151 0.90406376 4285692010
2.8969333 -0.79250312 0.9202292 4285889136
2.915365 -0.80886573 0.88732845 4286020720
2.9787152 -0.83778977 0.90098351 4285955181
2.8310359 -0.76649785 0.88581991 4285889136
2.8859537 -0.77030796 0.9166857 4285889137
2.8419206 -0.71524113 0.90256602 4285954933
3.1395931 -3.1002305 0.95688665 4287072901
3.1781378 -3.1162694 0.96900278 4287072901
3.1412907 -3.0671227 0.94937456 4287007108
3.1703038 -3.0550711 0.95054191 4286941315
3.1567867 -3.0301106 0.94345981 4286809728
2.3874111 -1.7962866 0.9789592 4287467659
2.2075233 -1.7535195 0.97556168 4287138950
2.2091784 -1.7576135 0.97138536 4287007621
2.2999258 -1.7563088 0.96413749 4287336073
2.3401725 -1.7676752 0.96847886 4287467660
2.3925915 -1.7788461 0.9557426 4287467661
2.1586001 -1.6967924 0.96546131 4287205000
2.1887724 -1.7099253 0.9662481 4287204488
2.2252581 -1.719709 0.96534485 4287204744
2.2660851 -1.7181482 0.97831553 4287401866
2.1519201 -1.6784474 0.9720847 4287270280
2.1845355 -1.6828344 0.97009289 4287270281
2.2129354 -1.682309 0.97832078 4287336074
2.0920858 -1.512066 0.96934932 4287467660
2.1207898 -1.4975911 0.97549868 4287336332
2.956224 -1.0900334 0.9427287 4285296990
3.0233908 -1.1013439 0.96412367 4285494370
2.9543767 -1.0795188 0.94117302 4285494369
2.9879572 -1.0647243 0.94989699 4285494623
3.0321276 -1.0679425 0.95824826 4285494368
3.0747669 -1.0607308 0.95401597 4285494623
3.0054524 -1.003414 0.93907011 4285626209
3.0250983 -1.0185019 0.95889145 4285428830
3.066747 -1.0064964 0.95181948 4285560416
3.1203282 -1.0010998 0.97284704 4285494623
3.0855513 -0.97624958 0.95710617 4285428831
3.1149738 -0.96919405 0.96563393 4285626209
3.1610227 -0.95205897 0.97434992 4285692517
3.0917604 -0.92121089 0.93827385 4285823335
3.1291072 -0.90668517 0.97034913 4285823594
3.16064 -0.9338944 0.97417682 4285692262
3.0408309 -0.84469253 0.95023078 4285955184
3.0737092 -0.87124717 0.95686013 4285889389
2.9554911 -0.7914654 0.96405965 4285428588
2.969389 -0.80178279 0.96517652 4285691757
3.0098319 -0.83192927 0.95612252 4285955185
2.9814849 -0.76481634 0.96838725 4285889139
2.9338565 -0.71868092 0.95122445 4285954678
2.9686444 -0.73849207 0.96253818 4286020726
2.4057462 -1.8092418 1.0050595 4287401867
2.2075868 -1.7561439 0.9916051 4287007878
2.2247345 -1.7635158 1.017494 4287204487
2.3352883 -1.7606418 0.99256939 4287467659
2.1938622 -1.708722 1.0057555 4287204488
2.2424765 -1.7274722 1.0301034 4287204488
2.2673655 -1.7319124 1.0265929 4287336075
2.1748586 -1.6865531 1.0035809 4287270281
2.2100255 -1.6867782 0.99250698 4287336075
2.1045172 -1.5439525 0.99881291 4287467659
2.1962678 -1.553257 1.0367751 4287270539
2.1071329 -1.5326649 1.0001521 4287401866
2.1261995 -1.5137289 1.0025457 4287270539
2.1798286 -1.5391369 1.0323191 4286941574
3.0258794 -1.1020706 0.99077576 4285362783
3.0664318 -1.0895147 1.0156221 4285494368
3.0344086 -1.0735902 0.99369258 4285362783
3.0826173 -1.0673767 1.0105233 4285428574
3.1112661 -1.043385 1.0095925 4285428831
3.1045799 -1.0116782 0.99553686 4285560412
3.1230025 -1.0246427 1.0040388 4285560416
3.1792006 -1.0122285 1.0098614 4285494623
3.2088084 -1.0145104 1.0178896 4285494623
3.172523 -0.96362036 1.0037071 4285692004
3.2096517 -0.96955448 1.0198509 4285626468
3.1456647 -0.90966427 1.0017045 4285823594
3.1729317 -0.93587756 0.9991048 4285758056
3.0532382 -0.84610087 1.0086008 4285757806
3.075701 -0.86248142 1.0058296 4285823597
3.1229961 -0.88214147 1.0129019 4285889389
2.9456201 -0.79969943 1.0196443 4285823595
2.9775081 -0.80568898 0.99954337 4285889135
3.0249262 -0.79839212 1.0068336 4285889137
2.9451938 -0.78836995 1.0194625 4285823599
2.98717 -0.76149428 0.9898839 4285823346
3.0562603 -0.7658689 1.0258129 4285757552
2.2922828 -1.8231428 1.0578715 4287138695
2.255748 -1.7676079 1.0537668 4287204487
2.2632475 -1.7698488 1.0619748 4286875521
2.2457862 -1.7307532 1.0426537 4287270280
2.1894548 -1.6039306 1.0556976 4287336073
2.2264071 -1.622717 1.0859773 4287336073
2.1812062 -1.5679253 1.0480288 4287336074
3.1415236 -1.1016772 1.0639297 4285494367
3.1029255 -1.0764287 1.035295 4285692002
3.1438684 -1.0729617 1.0487134 4285494622
3.1717513 -1.0544492 1.0502889 4285494621
3.2589598 -1.0462272 1.072862 4285560414
3.1894934 -1.0319134 1.0457965 4285494623
3.2410414 -1.0232983 1.0509059 4285626209
3.2670889 -1.0092323 1.0637748 4285560673
3.2387669 -0.95189661 1.0563934 4285692264
3.2828445 -0.97896564 1.0711386 4285692262
3.1526806 -0.89496315 1.067475 4285757801
3.2320969 -0.93131977 1.056255 4285889388
3.0197413 -0.84277856 1.0453663 4285823595
3.0738962 -0.85637891 1.0382196 4285757802
3.1515291 -0.88563836 1.0670552 4285889130
2.9834328 -0.8069914 1.0525615 4285692010
3.0342476 -0.80995786 1.0502894 4285823341
3.0748806 -0.79681885 1.0409049 4285954929
3.1215065 -0.80283695 1.0744638 4285954930
3.0725121 -0.77603811 1.0405056 4285889140
3.1264546 -0.78327787 1.0755079 4286086517
2.2266695 -1.6222256 1.09428 4287336073
3.2410257 -1.0979526 1.0984653 4285363036
3.2886155 -1.1023954 1.1202267 4285428830
3.2533584 -1.0840452 1.1007167 4285363036
3.283782 -1.0675508 1.1068912 4285363037
3.3205869 -1.0582157 1.1202519 4285494623
3.2867775 -1.0203639 1.089851 4285560673
3.3260217 -1.0043843 1.1010678 4285494882
3.2432239 -0.9454118 1.0827997 4285626215
3.2844133 -0.97306186 1.0903583 4285626214
3.1705871 -0.89687437 1.0976206 4285757799
3.2393093 -0.93194085 1.0814558 4285823595
3.0955577 -0.85423654 1.0984772 4285757800
3.0522125 -0.80662388 1.0869226 4285823596
3.0736432 -0.81968313 1.1046631 4285823597
3.1238205 -0.8033632 1.08713 4285823343
3.1929257 -0.81190205 1.1232833 4285954930
3.1233401 -0.78243655 1.0856272 4286086517
3.3313155 -1.1386737 1.1728276 4285428828
3.2810247 -1.1153688 1.1395242 4285428829
3.3206217 -1.1077921 1.1570851 4285428830
3.3330126 -1.0700783 1.1486785 4285494623
3.3692236 -1.0461102 1.1410599 4285626210
3.4247487 -1.0405138 1.1597955 4285494880
3.3894665 -1.0181085 1.1478145 4285560418
3.4246507 -1.024164 1.1629709 4285429087
3.3573906 -0.96892703 1.1421481 4285823847
3.3618705 -0.97419369 1.137134 4285692006
3.4267864 -0.98233736 1.1765871 4285560933
3.2017651 -0.89324272 1.1509535 4285691750
3.2502995 -0.91926199 1.14683 4285889127
3.1860461 -0.86757123 1.1613444 4285692008
3.1935046 -0.81199515 1.1325867 4285889138
3.425626 -1.1642245 1.2255214 4285363035
3.3348534 -1.1177212 1.1946987 4285428828
3.388361 -1.1142083 1.2036678 4285363035
3.4217186 -1.1108434 1.2124029 4285428827
3.499567 -1.0896889 1.2118037 4285626209
3.4303167 -1.07903 1.1889342 4285560416
3.5013084 -1.0775155 1.2114614 4285626209
3.5159738 -1.0479481 1.2173402 4285625954
3.4269733 -0.9947083 1.1884025 4285560161
3.5175416 -1.0350534 1.2145075 4285691492
3.3292313 -0.94458795 1.1968145 4285757541
3.4307444 -0.98339254 1.190987 4285560163
3.2739449 -0.90697211 1.2017496 4285757799
3.3275509 -0.93461263 1.1961898 4285823334
3.4203615 -1.1623534 1.2366339 4285626207
3.4717081 -1.1433694 1.2682747 4285560413
3.547961 -1.1423868 1.2536057 4285297241
3.3683932 -1.1253513 1.2401776 4285494620
3.4190204 -1.1196196 1.2360246 4285297240
3.4721699 -1.1296383 1.2703804 4285560412
3.5506804 -1.1341569 1.2515082 4285560413
3.5982575 -1.0916277 1.2438353 4285692002
3.5226352 -1.0431677 1.2296696 4285560416
3.5983746 -1.0822539 1.247371 4285626209
3.6246679 -1.0733055 1.2721699 4285626209
3.5428102 -1.025463 1.2500987 4285560417
3.4532161 -0.97520494 1.2632372 4285757541
3.4644372 -0.98164046 1.2706369 4285625955
3.6906271 -1.1909726 1.3201349 4285363033
3.4734709 -1.1438663 1.2821096 4285428826
3.6455555 -1.141872 1.286598 4285297242
3.6865156 -1.1607647 1.3059062 4285428827
3.7152719 -1.1477793 1.3094116 4285560416
3.7658076 -1.1401206 1.3217787 4285692002
3.4719212 -1.1312406 1.2826012 4285428826
3.702559 -1.109455 1.3171196 4285692002
3.766197 -1.12949 1.3218836 4285692002
3.5980351 -1.044704 1.2935132 4285626465
3.6235187 -1.072903 1.2820901 4285626210
3.6004603 -1.0317039 1.2943435 4285757542
3.4550784 -0.98331249 1.2781532 4285823334
3.4649262 -0.97622502 1.2817675 4285625955
3.6861577 -1.1894447 1.3325409 4285363033
3.6914423 -1.1806116 1.3344209 4285428826
3.7655778 -1.1399866 1.3324245 4285691999
3.6970282 -1.0944786 1.3346785 4285626209
3.7673721 -1.1177466 1.3461138 4285691744
3.829601 -1.2189051 1.3951969 4285494619
3.8795516 -1.2001451 1.3949335 4285560413
3.9164965 -1.2411836 1.4380462 4285494619
3.9699161 -1.2354581 1.4538265 4285429596
3.9173088 -1.2302623 1.4383152 4285494875
3.9805915 -1.2179739 1.4599687 4285494878
4.0497012 -1.2976204 1.5148669 4285428826
4.0631928 -1.310686 1.5112616 4285494619
4.0095224 -1.2442858 1.5031198 4285560157
4.022398 -1.2651038 1.5071589 4285494619
4.0943217 -1.2428274 1.522613 4285626207
4.0068226 -1.2207223 1.4945321 4285626207
4.0783944 -1.2118076 1.5195143 4285560416
4.0473514 -1.2977384 1.5283985 4285494619
4.0907979 -1.2416645 1.5368389 4285560414
4.0823812 -1.2157999 1.5365938 4285560415
4.1290913 -1.1965874 1.5714294 4285692002
4.1221671 -1.1804773 1.5679814 4285691749
4.3501449 -1.5562081 1.6184269 4285757541
4.2608638 -1.5080593 1.5912344 4285231197
4.2683101 -1.504542 1.6031126 4285428830
4.257359 -1.4459226 1.6160123 4285231701
4.2081847 -1.400243 1.6064808 4285297494
4.2082181 -1.3731486 1.6091778 4285363288
4.224297 -1.3543105 1.6112512 4285428826
4.1775131 -1.3130964 1.5925337 4285560155
4.2256436 -1.3021266 1.6123428 4285625950
4.2268891 -1.2650832 1.6103716 4285626208
4.1092625 -1.1845338 1.5747957 4285560416
4.1370802 -1.2009169 1.6035943 4285494623
4.1671963 -1.2091414 1.5970188 4285231451
4.1099553 -1.1769145 1.5750388 4285691749
4.127861 -1.1819187 1.6014781 4285625956
4.3611059 -1.5559295 1.6307709 4285428577
4.3747578 -1.5669919 1.6441905 4285560162
4.2585373 -1.4462473 1.6285846 4285297750
4.2753944 -1.4355218 1.6633849 4285494618
4.2064948 -1.3884119 1.6365126 4285363033
4.2731271 -1.4155843 1.6572291 4285428826
4.2055221 -1.372094 1.6360896 4285428826
4.2381635 -1.3384209 1.6446372 4285560414
4.2949381 -1.3726945 1.6626378 4285626205
4.3246717 -1.341109 1.6658208 4285691487
4.2403555 -1.3068339 1.6453953 4285560671
4.322536 -1.3240026 1.664951 4285626207
4.2434139 -1.2700071 1.6439166 4285494622
4.2861576 -1.2679899 1.6573262 4285560416
4.2000251 -1.2130407 1.6587476 4285494623
4.2177629 -1.2235079 1.6644311 4285429086
4.3589263 -1.5877699 1.71278 4285822819
4.3740678 -1.6015968 1.7187527 4285756515
4.5046139 -1.6068959 1.7138804 4285363038
4.3749261 -1.574175 1.7190111 4285625438
4.4206848 -1.5391142 1.686505 4285363033
4.499898 -1.5795288 1.7124891 4285560413
4.3901482 -1.4949112 1.7039205 4285363032
4.4201093 -1.5221025 1.6862358 4285231447
4.2895198 -1.4400787 1.6973766 4285495129
4.3532228 -1.4366581 1.7142447 4285494619
4.3892074 -1.4820689 1.703519 4285363289
4.2878828 -1.4223194 1.6944113 4285560411
4.3581572 -1.4109308 1.7152818 4285428826
4.2964859 -1.3730868 1.679546 4285560411
4.3258967 -1.3413873 1.6827134 4285625437
4.3710279 -1.3760439 1.7169189 4285363036
4.3234 -1.3241669 1.6816974 4285560414
4.3781929 -1.3200042 1.7195672 4285428828
4.2853694 -1.2676537 1.6749101 4285626210
4.2075353 -1.212445 1.6763437 4285363037
4.2279496 -1.2303741 1.6845106 4285428830
4.5442743 -1.6541376 1.7603428 4285494113
4.3504052 -1.5969154 1.7342325 4285691755
4.383101 -1.6029856 1.7361389 4285493856
4.5079489 -1.6051006 1.7341502 4285297244
4.5363779 -1.6229471 1.7541417 4285428317
4.5860314 -1.6183076 1.7670481 4285362777
4.3043146 -1.5418468 1.7414145 4285560162
4.3366766 -1.5596967 1.7352146 4285494369
4.3738613 -1.5698321 1.7318485 4285494366
4.49052 -1.5540683 1.7632858 4285297240
4.5238633 -1.5662035 1.755888 4285362777
4.4960871 -1.5222609 1.7663419 4285231957
4.3058443 -1.441252 1.7365026 4285363288
4.3578858 -1.438091 1.7326242 4285560411
4.3011127 -1.4274009 1.7345583 4285494620
4.3542824 -1.4130977 1.7290497 4285428826
4.3667345 -1.3974122 1.7349807 4285428826
4.3586602 -1.363741 1.7327157 4285429086
4.3753552 -1.3579532 1.7507503 4285428315
4.4292259 -1.364783 1.7522987 4285559901
4.3872194 -1.3157879 1.7412935 4285494622
4.4213176 -1.3035084 1.7462109 4285494622
4.54177 -1.654363 1.7760007 4285690979
4.5086985 -1.5941141 1.793731 4285428828
4.5281324 -1.6037977 1.7864701 4285362522
4.590796 -1.6198797 1.7863076 4285362265
4.4595947 -1.5733023 1.786037 4284639312
4.4969134 -1.5545377 1.7927369 4285363033
4.5255647 -1.5685704 1.814519 4285297241
4.4410114 -1.4905089 1.8162901 4285231447
4.4992232 -1.5176077 1.7986676 4285363288
4.4429507 -1.4785116 1.8128418 4285428826
4.5107002 -1.4712037 1.8104438 4285428826
4.5240068 -1.448012 1.8148459 4285363033
4.4774151 -1.4084492 1.8042734 4285297240
4.3761606 -1.3481673 1.7769846 4285494107
4.4881606 -1.3528665 1.8053387 4285363035
4.5115852 -1.5914887 1.828258 4285428575
4.5217199 -1.5985389 1.8263602 4285296988
4.5778961 -1.6104347 1.8681418 4285428575
4.5100098 -1.5613906 1.8289596 4285297242
4.5451183 -1.5480983 1.8557217 4285231447
4.574122 -1.5786526 1.8665164 4285363034
4.4395819 -1.4857477 1.8241181 4285231447
4.5036941 -1.511585 1.829115 4285429080
4.5165277 -1.4901975 1.8256844 4285494619
4.4453893 -1.4778241 1.827889 4285494619
4.5070763 -1.4699136 1.82609 4285494619
4.5233159 -1.4506347 1.83076 4285363033
4.4858036 -1.4203037 1.8216097 4285099861
4.4961104 -1.3551607 1.8256022 4285231449
4.5819578 -1.6074361 1.8816346 4285428828
4.6355019 -1.6086293 1.8915852 4285626208
4.5570912 -1.5582426 1.8768183 4285363288
4.5709705 -1.5644362 1.8782033 4285165909
4.6382604 -1.5388633 1.9189116 4285560412
4.6904836 -1.4493092 1.9135175 4285691229
4.467135 -1.3458149 1.9155391 4285034070
4.571703 -1.3523433 1.9027513 4285494623
4.4580708 -1.3210975 1.9014361 4285231450
4.4679756 -1.3207288 1.8904041 4285494623
4.6608973 -1.5905929 1.9416646 4285362778
4.6504335 -1.5594127 1.936123 4285494618
4.4294972 -1.5026631 1.94187 4285362526
4.5105224 -1.5130273 1.9687862 4285757025
4.4861093 -1.3896749 1.9620692 4285362265
4.5854115 -1.3902613 1.9445276 4285363037
4.4824071 -1.3569759 1.9439666 4285297242
4.5856876 -1.3738778 1.9421713 4285363037
0.90166837 -0.88178009 -0.60916162 4284571975
0.91935164 -0.80931491 -0.61713749 4284572494
0.95448703 -0.82195258 -0.64533991 4284769617
0.91556352 -0.78288221 -0.61494797 4284835410
0.8924498 -0.72626466 -0.60749912 4285032788
0.91292357 -0.72280562 -0.61510646 4285296218
0.90286416 -0.6974107 -0.61116683 4285230683
0.92715454 -0.54984498 -0.61308211 4284506695
0.91491765 -0.53680503 -0.61037469 4284506695
0.89241844 -0.49309921 -0.60636878 4284243523
0.89404804 -0.47521478 -0.60867542 4284375110
0.89241081 -0.44591534 -0.60648847 4284572750
0.89962947 -0.43778962 -0.60873342 4284441163
0.91777891 -0.90491623 -0.56300312 4284769611
0.88524914 -0.85788912 -0.58337885 4284572233
0.90117437 -0.88370407 -0.58030194 4284638025
0.88035911 -0.8247267 -0.57849824 4284572235
0.90931207 -0.81402546 -0.58114725 4284704078
0.87963754 -0.78402692 -0.58023983 4284638030
0.90480739 -0.78329593 -0.58026367 4284901459
0.8727172 -0.72646755 -0.58337063 4284966996
0.90383816 -0.72043806 -0.5998767 4285098839
0.84038448 -0.68426669 -0.5564819 4284835410
0.87208837 -0.69288695 -0.57076025 4285033303
0.88105232 -0.60646868 -0.57689321 4284309068
0.89935243 -0.60857606 -0.56209219 4284506188
0.83693504 -0.55491966 -0.56322044 4284309320
0.87324733 -0.57827514 -0.57084525 4284375113
0.92126822 -0.5495683 -0.60618371 4284440902
0.83757746 -0.53765559 -0.56319332 4284375113
0.86712676 -0.51900029 -0.57677329 4284440903
0.90295714 -0.5306958 -0.59640551 4284506695
0.87751359 -0.47296453 -0.57629597 4284572490
0.89486492 -0.46604964 -0.59666729 4284440903
0.88052714 -0.42311713 -0.57383239 4284572492
0.89835763 -0.43841723 -0.59307891 4284572748
0.83402836 -0.36723053 -0.56558377 4284506958
0.85672617 -0.37214819 -0.56734294 4284572750
0.8405605 -0.30738959 -0.56657583 4284572752
0.86622226 -0.33172774 -0.57832056 4284638545
0.8306396 -0.26431361 -0.56129473 4284572498
0.85200441 -0.2606107 -0.56826627 4284572754
0.83119571 -0.22017257 -0.55940086 4284507221
0.84423018 -0.24253716 -0.56140763 4284572499
0.81814402 -0.19247197 -0.55817616 4284573015
0.9211309 -0.90790707 -0.55358022 4284769355
0.88755918 -0.8637529 -0.54245234 4284769611
0.90162647 -0.88251245 -0.54478681 4284835149
0.88019872 -0.82991058 -0.53185827 4284703821
0.90113217 -0.8186565 -0.54127461 4284769615
0.88346958 -0.78293347 -0.53272712 4284901457
0.89947617 -0.79797143 -0.55472827 4284835664
0.82691938 -0.70715123 -0.53251362 4284901203
0.86879468 -0.73892158 -0.52529806 4285033044
0.78408098 -0.66397834 -0.5126667 4284966996
0.8214556 -0.67546386 -0.53543586 4285033046
0.78399003 -0.63962203 -0.51188833 4285164631
0.8015703 -0.63191092 -0.51302475 4285164890
0.88334191 -0.61089838 -0.55548882 4284111433
0.89902216 -0.60418093 -0.54529572 4284440653
0.84209645 -0.55434257 -0.55089706 4284572492
0.87207752 -0.5680058 -0.53984761 4284572492
0.89920592 -0.59138626 -0.53591442 4284769617
0.82880068 -0.52243626 -0.53896797 4284506697
0.8629542 -0.52203178 -0.53394675 4284638539
0.87770486 -0.47500628 -0.53429067 4284835661
0.90391195 -0.46491429 -0.54070961 4284835662
0.87098849 -0.41746771 -0.53124446 4284704077
0.90113926 -0.44438449 -0.53257853 4284835662
0.83246231 -0.35873052 -0.53830796 4284638287
0.86748147 -0.37522951 -0.52824956 4284769615
0.83508015 -0.32876569 -0.52704024 4284769874
0.85549545 -0.32530856 -0.53633827 4284769874
0.77621156 -0.26678476 -0.5257225 4284638546
0.82310355 -0.27756226 -0.5357936 4284704339
0.85409695 -0.270484 -0.5302636 4284770133
0.77932566 -0.20482261 -0.52868557 4284441685
0.82172042 -0.21071255 -0.54033172 4284573270
0.85767817 -0.23088492 -0.52711058 4284704598
0.78847897 -0.17348817 -0.52462888 4284638809
0.81055665 -0.18479346 -0.5283978 4284639064
0.84466004 -0.19769444 -0.51588339 4284968028
0.79570627 -0.13732277 -0.50625807 4284901983
0.87734354 -0.81268132 -0.50258517 4284835407
0.84089917 -0.75638139 -0.47081307 4284901457
0.86093974 -0.77726233 -0.48955306 4284835664
0.8243978 -0.72398746 -0.48169935 4284967250
0.84466481 -0.71969658 -0.50318015 4285033042
0.77048218 -0.66118032 -0.47594681 4284967252
0.80463284 -0.68725926 -0.48972386 4285032787
0.73703307 -0.61237711 -0.46831518 4285032789
0.76055014 -0.6276983 -0.48660249 4285098582
0.73950648 -0.58986491 -0.4690108 4285099097
0.74528575 -0.59469622 -0.47314364 4285362269
0.87715286 -0.55807954 -0.49698737 4284703822
0.83454484 -0.52382237 -0.47869292 4284769613
0.86702752 -0.52134067 -0.4814983 4284769868
0.83295411 -0.48842362 -0.47989792 4284769611
0.86676651 -0.47404706 -0.48350653 4284835660
0.89660794 -0.49383515 -0.46970537 4284901195
0.8738867 -0.4249194 -0.48768947 4284835660
0.89680302 -0.4380137 -0.49504766 4284967247
0.87003469 -0.37229088 -0.47716373 4284901199
0.83672053 -0.32109261 -0.49294826 4284901459
0.86266899 -0.3210229 -0.47675738 4284901715
0.89399052 -0.30008069 -0.47567421 4285033304
0.83342397 -0.28253287 -0.48077884 4284901718
0.86226869 -0.27291298 -0.4826442 4284967512
0.89399111 -0.29664391 -0.47568223 4285099097
0.83934069 -0.20189157 -0.4738543 4284901980
0.86504477 -0.22993259 -0.48094487 4284901978
0.89554787 -0.22380914 -0.46629032 4285033821
0.77897382 -0.16192581 -0.47792789 4284836188
0.81629574 -0.17993659 -0.47729453 4284901980
0.78695476 -0.12640406 -0.47650528 4284967776
0.79514331 -0.13455565 -0.49335957 4284967776
0.73186398 -0.076903023 -0.47766069 4285165156
0.74973565 -0.090277433 -0.47598818 4285099363
0.7298457 0.62055916 -0.47612774 4286679431
0.74299836 0.64170414 -0.47990787 4286613638
0.75654763 0.6720134 -0.47517747 4286613639
0.77967596 0.71327442 -0.46455044 4286745224
0.79304713 -0.70084047 -0.44295707 4284835664
0.81427985 -0.7117638 -0.44323519 4285033043
0.77371258 -0.6710242 -0.43658766 4285098836
0.80742908 -0.69119525 -0.4389649 4285164629
0.73340333 -0.63135135 -0.42896435 4285164373
0.75508219 -0.64601868 -0.43928158 4285164629
0.87323868 -0.55065316 -0.44176808 4285032531
0.83714676 -0.51403636 -0.42930734 4284835406
0.86229634 -0.52769643 -0.43829754 4284900942
0.83573455 -0.48489499 -0.42597044 4284966988
0.8570438 -0.48184469 -0.43267992 4285033038
0.82901359 -0.42635816 -0.42709863 4284901453
0.86084479 -0.41661161 -0.42688486 4284966989
0.89842659 -0.40393445 -0.41630161 4284901454
0.83923888 -0.38633102 -0.41697377 4284901453
0.8635186 -0.37360534 -0.4300822 4284967248
0.8290723 -0.31538615 -0.4519299 4285099093
0.87228018 -0.32278192 -0.43141219 4285033043
0.89395642 -0.31453517 -0.43591791 4285229911
0.83853906 -0.25137222 -0.44489121 4285033049
0.87503266 -0.27633825 -0.4347142 4285230426
0.89538336 -0.2847617 -0.43197605 4285296474
0.83606362 -0.22584017 -0.42433381 4285099357
0.85417765 -0.23221327 -0.43426251 4285099357
0.79003608 -0.15593889 -0.43270054 4285033567
0.81970423 -0.1595009 -0.42511234 4285099360
0.78106624 -0.11376088 -0.4234612 4285165155
0.80098218 -0.13747443 -0.4234257 4285099361
0.73173124 -0.07589899 -0.43036431 4285230949
0.75807577 -0.09055192 -0.43153578 4285230948
0.72514325 0.59135926 -0.43925202 4287008397
0.72758532 0.62090141 -0.43060806 4286876811
0.74301904 0.64437979 -0.42476237 4287008397
0.75871986 0.67685252 -0.43026248 4286942603
0.77959722 0.71379745 -0.4463805 4286810761
0.83571309 -0.50667274 -0.40265015 4284966734
0.86915082 -0.51094568 -0.38408497 4285032785
0.83637196 -0.46537247 -0.38594446 4285098575
0.85369408 -0.48344478 -0.38508725 4285164368
0.82591951 -0.43266022 -0.38006094 4285164367
0.85836083 -0.42162257 -0.39542603 4285164625
0.84183878 -0.3567906 -0.37613311 4285033041
0.85766202 -0.36438558 -0.39448193 4285164626
0.86026818 -0.33337393 -0.39973292 4285098835
0.81126261 -0.27829155 -0.36182362 4285427802
0.85355049 -0.26348722 -0.3864429 4285362012
0.83603472 -0.22657616 -0.38159454 4285296478
0.85161078 -0.23841114 -0.37752649 4285428063
0.79162204 -0.15417279 -0.37098539 4285165153
0.80009246 -0.15419056 -0.38504252 4285165153
0.78409922 -0.1196817 -0.37929833 4285296740
0.79820764 -0.12736352 -0.38634592 4285296740
0.73214674 -0.074885421 -0.37678534 4285362534
0.75993979 -0.089790925 -0.38189986 4285362534
0.72252911 0.58620989 -0.36892745 4287337105
0.7346046 0.62371343 -0.38171932 4287139982
0.74436736 0.64484853 -0.38480821 4287139982
0.75849938 0.67226362 -0.37985078 4287139982
0.78062588 0.71302456 -0.36229807 4287205775
0.87588483 -0.50967818 -0.3549335 4285295702
0.8206135 -0.46479198 -0.32788453 4285230161
0.85136282 -0.48814997 -0.34915745 4285361491
0.79085535 -0.41176823 -0.3110131 4284966987
0.80552113 -0.43793422 -0.31998044 4285032781
0.78672802 -0.37852746 -0.31308004 4285032780
0.80326045 -0.3735069 -0.33370531 4285098830
0.78462201 -0.27223894 -0.32995534 4285427545
0.80896926 -0.26461205 -0.34878835 4285362267
0.83338088 -0.23792623 -0.34910873 4285099098
0.7919594 -0.15158573 -0.31040221 4285691497
0.80094606 -0.16863166 -0.31247133 4285559911
0.77647525 -0.11862793 -0.33064798 4285625704
0.73195451 -0.065938398 -0.32719165 4285691499
0.75775945 -0.086401902 -0.3314347 4285691499
0.7231077 0.58437675 -0.33710477 4287468948
0.73368561 0.62214553 -0.33044532 4287337361
0.74523216 0.64524943 -0.32627487 4287337361
0.76181394 0.67521608 -0.3328791 4287271568
0.78029323 0.71402901 -0.33878982 4287205776
0.79173666 -0.45045587 -0.2906442 4285098575
0.80092525 -0.45459923 -0.279098 4285032783
0.78394276 -0.42211267 -0.28142929 4285032780
0.79776502 -0.44072488 -0.27710739 4284966989
0.76858324 -0.37425786 -0.2773248 4285033036
0.79979581 -0.39751238 -0.29690051 4284967242
0.76599085 -0.32616085 -0.26585922 4285098833
0.80380607 -0.30198133 -0.27663887 4285362008
0.79095101 -0.28876707 -0.26057881 4285362266
0.81592607 -0.27159911 -0.27886495 4285428060
0.783696 -0.20938861 -0.26439717 4285625700
0.80733258 -0.23210473 -0.27264833 4285493856
0.77608228 -0.17211345 -0.27270517 4285691751
0.79668945 -0.17295198 -0.28928998 4285757544
0.77015227 -0.11582863 -0.28318468 4285757292
0.73144692 -0.072302863 -0.27873868 4285757293
0.75264496 -0.088321984 -0.28628001 4285757292
0.72424155 0.5925523 -0.27363661 4287600534
0.73461872 0.62067962 -0.28224173 4287468948
0.74687803 0.64325595 -0.27239156 4287468948
0.7546581 0.66742885 -0.27848569 4287403155
0.78718382 -0.45174617 -0.22192085 4285624928
0.79925579 -0.45420823 -0.24976902 4285230166
0.77934647 -0.41934681 -0.2313516 4285033039
0.79557723 -0.4468182 -0.25433198 4284966735
0.76783431 -0.37246904 -0.23213814 4284967501
0.74335623 -0.32538679 -0.20897684 4285099346
0.76365352 -0.32031837 -0.23049194 4285230676
0.77624571 -0.27662465 -0.22893801 4285494109
0.80502069 -0.25963366 -0.24917538 4285757027
0.74247682 -0.22325277 -0.21771508 4285625955
0.77101517 -0.22324425 -0.2244096 4285691748
0.80546153 -0.21142896 -0.24335881 4285757543
0.7769177 -0.17678194 -0.24996069 4285625959
0.81134331 -0.1819202 -0.24243793 4285757288
0.7630018 -0.11169112 -0.2460448 4285757805
0.72982395 -0.071294509 -0.24058147 4285757294
0.75113147 -0.092357166 -0.24559359 4285757293
0.72689289 0.59010869 -0.23735675 4287797913
0.73448169 0.61641788 -0.23012622 4287666584
0.74556893 0.64110595 -0.23344329 4287600791
0.74063957 0.66222864 -0.22083181 4287534741
0.7502293 0.66125178 -0.22840628 4287534998
0.72923774 -0.47981727 -0.19551314 4287204737
0.77293938 -0.45090568 -0.19655462 4285230430
0.7658208 -0.41031578 -0.18237804 4285164630
0.74562687 -0.35134396 -0.1617481 4285756762
0.76026338 -0.37440997 -0.17966668 4284967759
0.74265575 -0.32220566 -0.19586813 4285099346
0.76301408 -0.32416055 -0.1807501 4285230932
0.74252039 -0.29628378 -0.15775707 4285165656
0.76260781 -0.27151263 -0.17780238 4285625953
0.75982869 -0.23085561 -0.18642521 4285757284
0.75498748 -0.19720845 -0.20396355 4285691749
0.91769421 -0.13440321 -0.15789092 4286152310
0.72660482 0.59103721 -0.18263996 4287798683
0.73577994 0.61810797 -0.18229875 4287798427
0.75064772 0.6421656 -0.18090084 4287732634
0.7363987 0.65384436 -0.17157124 4287732122
0.75292361 0.65955788 -0.18400778 4287732377
0.76367128 -0.40345061 -0.15044405 4285164630
0.81881267 -0.40033087 -0.1100263 4285231446
0.76847029 -0.37452748 -0.13752213 4285230931
0.81930786 -0.38541555 -0.11551065 4285231188
0.850187 -0.3873879 -0.10877182 4285362517
0.74407887 -0.30448288 -0.15260364 4285559643
0.76133078 -0.32866359 -0.1383251 4285296725
0.81709474 -0.32712367 -0.10763517 4285230933
0.87300533 -0.32530883 -0.10721978 4285363035
0.73909569 -0.2955142 -0.15194212 4285494621
0.76437336 -0.27187416 -0.15123907 4285625953
0.81401932 -0.28242594 -0.11017279 4285494624
0.90705246 -0.19886312 -0.10980894 4285823085
0.89097959 -0.18462414 -0.11129125 4286086514
0.90389353 -0.19211876 -0.10943417 4286086258
0.90668029 -0.13180918 -0.12793383 4286152311
0.72855473 0.58895802 -0.13070622 4287930014
0.73961973 0.62370586 -0.13446321 4287798429
0.74945825 0.63560545 -0.13095219 4287798429
0.74132872 0.65495002 -0.13190141 4287732636
0.75405645 0.66313756 -0.12068165 4287732635
0.98971337 -0.47946799 -0.067949787 4285428829
1.0171111 -0.4762648 -0.064814821 4285363032
0.83794022 -0.4019587 -0.10224455 4285297238
0.83025539 -0.36881295 -0.098964155 4285165139
0.87517434 -0.36421973 -0.081522755 4285165396
0.91907036 -0.35471743 -0.076511756 4285231447
0.97125679 -0.35967183 -0.07576739 4285363035
1.0031196 -0.3631303 -0.064676724 4285428317
0.78558898 -0.3276169 -0.10451046 4284967759
0.82960713 -0.33585525 -0.085815638 4285165395
0.8778016 -0.31544995 -0.088737421 4285428829
0.91826034 -0.31896323 -0.076199412 4285560159
0.96010602 -0.32315606 -0.066773936 4285625953
0.8313601 -0.28479132 -0.10117511 4285625954
0.8730191 -0.28701681 -0.087301455 4285691747
0.91934633 -0.28900805 -0.070325986 4285757541
0.93040389 -0.20156351 -0.086594164 4286086257
0.95698088 -0.20046203 -0.073612221 4286218101
0.89436167 -0.182372 -0.10485621 4286218100
0.92337811 -0.18512186 -0.090910554 4286152564
0.95096791 -0.19010241 -0.073159195 4286218357
0.90061617 -0.13424374 -0.1056434 4286218103
0.72698629 0.59067398 -0.07862588 4287995809
0.73569685 0.62093288 -0.080016792 4287930015
0.75001138 0.6406914 -0.087033078 4287864222
0.74284619 0.65423822 -0.093922175 4287798172
0.75815344 0.66140229 -0.082662702 4287798429
0.99647915 -0.48869532 -0.053133495 4285494624
1.0159394 -0.48000303 -0.049860276 4285363288
0.91232175 -0.35068995 -0.051620834 4285297242
0.98048228 -0.36566392 -0.0534328 4285494622
1.0255555 -0.36586601 -0.04692474 4285428830
1.0636606 -0.35626408 -0.032750379 4285691747
1.09902 -0.3497605 -0.021240989 4285889127
0.91759872 -0.34105256 -0.055175591 4285297243
0.9703359 -0.30951184 -0.044957876 4285757542
1.0156116 -0.32762533 -0.036602534 4285757541
1.0673599 -0.34487733 -0.031859472 4285889127
0.94158572 -0.28869316 -0.052242532 4285823335
0.95986789 -0.29187632 -0.043651268 4285889128
0.72655678 0.59365684 -0.041477077 4288061601
0.73679483 0.62493241 -0.030408066 4287930015
0.75062817 0.64489156 -0.029138081 4287930015
0.74020797 0.65562934 -0.025688935 4287798429
0.75688988 0.65544707 -0.039008383 4287930015
1.2263386 1.2272811 -0.029714379 4287469207
1.2367603 1.2611715 -0.026458835 4287534487
1.2565262 1.2842466 -0.039752565 4287534743
0.72528124 0.60023087 0.0155191 4288061601
0.73813784 0.63007599 0.014035802 4287930015
0.75447857 0.64228171 0.018300634 4287995808
0.74252474 0.65509701 0.019631246 4287798430
0.75274748 0.6577642 0.025858631 4287930015
1.2107842 1.1950185 -0.0061605186 4287534743
1.2166559 1.2265813 -0.0020835281 4287468952
1.2311646 1.2607801 0.0039132643 4287468696
1.2458775 1.2874199 0.0035287039 4287337111
1.2651495 1.3165029 -0.0031195746 4287403159
3.3951457 -3.0428393 0.052195031 4286678391
3.4125006 -3.0517311 0.071971767 4286744438
3.3920155 -3.0329731 0.055669058 4286809977
3.2703013 -2.9060445 0.072089054 4286744438
0.89726859 -0.29932293 0.067768678 4286020715
0.91275471 -0.30539876 0.055563759 4285889128
0.88785934 -0.2915017 0.071092092 4286020714
0.90773463 -0.28944641 0.06330923 4285954922
0.72468621 0.58693349 0.065223545 4288193189
0.73591441 0.62248367 0.06485571 4288061602
0.75570053 0.64340329 0.065592378 4287995810
0.74212188 0.65338659 0.065574296 4287995810
0.75655031 0.65458965 0.075016052 4287995809
1.2222168 1.2405018 0.071023494 4287469209
1.2406125 1.2616804 0.063347876 4287535000
1.2440687 1.2631519 0.073647477 4287403673
1.279488 1.3284737 0.089213446 4287533976
3.4251075 -3.0627635 0.10165013 4286678645
3.3227935 -2.9548578 0.11064713 4286678645
3.2744629 -2.9096332 0.086013474 4286876025
3.3098736 -2.9346228 0.10450577 4286744438
3.1837401 -2.8095562 0.10784312 4286809975
3.1411231 -2.7556262 0.10706802 4286941562
3.1709206 -2.7874634 0.10011191 4286875770
3.1254787 -2.7329926 0.097330272 4286941562
0.72926044 0.5914427 0.1035573 4288127396
0.73658836 0.62977755 0.123819 4287995810
0.75275975 0.64236885 0.11635694 4287995810
0.74041021 0.65272063 0.13155375 4287930017
0.76093262 0.65488565 0.10601348 4287995810
1.1503421 1.145561 0.13090816 4287535259
1.1622734 1.1722476 0.12239921 4287469466
1.1878098 1.2157619 0.12501068 4287469465
1.2138714 1.2385794 0.1059211 4287403673
1.2227321 1.2654443 0.12206945 4287403416
1.2491151 1.2920852 0.10439336 4287337880
1.2737455 1.3224572 0.098572314 4287337623
1.2942359 1.3498741 0.10388739 4287468696
1.2942427 1.3536179 0.10388546 4287468950
3.4139085 -3.1463313 0.17291373 4286612853
3.4975553 -3.1526215 0.15786763 4286678645
3.3948147 -3.0997102 0.1719297 4286678391
3.413789 -3.1332393 0.17289878 4286678645
3.4971037 -3.139971 0.15373805 4286744438
3.3749776 -3.0559502 0.1709107 4286678646
3.4255962 -3.0629451 0.13427456 4286810232
3.3747969 -3.02141 0.15641312 4286744439
3.2905147 -2.9436097 0.16188154 4286744439
3.3369839 -2.96682 0.13815977 4286744439
3.2866001 -2.932281 0.16505659 4286810231
3.3095808 -2.9376087 0.1500006 4286678646
3.2318103 -2.8711534 0.16672175 4286810231
3.1945877 -2.8170516 0.14043793 4286744184
3.1221974 -2.7536933 0.16424623 4286744438
3.1566148 -2.7625756 0.14177237 4286809977
3.0944936 -2.7131922 0.16624531 4286810231
3.1191378 -2.7415299 0.16090736 4286876024
1.6238925 -1.0047839 0.16584885 4287139203
1.586507 -0.96661144 0.16203867 4287204996
1.6253697 -0.91959375 0.18678857 4287336582
1.5859815 -0.86371547 0.18428741 4287270789
1.601034 -0.89230132 0.18454938 4287336582
1.151666 1.1456511 0.14979652 4287469466
1.1698878 1.1770213 0.15865052 4287403673
1.1991543 1.200076 0.18336879 4287403673
1.1871252 1.2129279 0.15487526 4287403673
1.2013946 1.2266607 0.17117964 4287403673
1.2167231 1.263989 0.14819831 4287337623
3.414319 -3.1466045 0.18594439 4286612852
3.3949943 -3.099772 0.18487531 4286678134
3.4140246 -3.1333523 0.18591951 4286612853
3.34658 -3.0458558 0.20771843 4286547061
3.3733749 -3.0683045 0.19420384 4286612597
3.2934389 -2.9943233 0.22013527 4286547060
3.3474176 -3.0209229 0.20313421 4286612853
3.3762329 -3.0345163 0.18382506 4286744439
3.295666 -2.9732742 0.21829326 4286678645
3.2733407 -2.9260273 0.19470592 4286744438
3.2299492 -2.8694038 0.17893656 4286941817
3.1848283 -2.8292587 0.19161406 4286876025
3.0744514 -2.7038956 0.20070429 4286876025
3.1372039 -2.7100134 0.21773668 4286941563
3.1592233 -2.7042687 0.20807087 4286678392
3.1277654 -2.6877189 0.21198922 4287007357
1.6566406 -1.0972157 0.23713443 4287139203
1.7425869 -1.0976688 0.22833313 4287336582
1.634425 -1.0638883 0.2325543 4287139203
1.6819746 -1.0668657 0.22515722 4287270789
1.7227651 -1.0716184 0.23077863 4287468168
1.5979186 -1.0246103 0.23361741 4287139203
1.6190562 -1.0305799 0.2280101 4287270789
1.6530354 -1.0287428 0.22871406 4287468168
1.7037289 -1.0439799 0.2340702 4287599754
1.5299453 -0.99022478 0.21760456 4287073410
1.6376598 -0.95127004 0.2093555 4287402375
1.6603825 -0.95892859 0.22969536 4287336582
1.5991622 -0.89789665 0.1983701 4287204996
1.6335279 -0.93001062 0.20542797 4287270789
1.720866 -0.90291488 0.23438197 4287204998
1.7526727 -0.90187985 0.23735732 4287533963
1.5931796 -0.87366045 0.20317724 4287204996
1.6232989 -0.87485743 0.21520694 4287204996
1.6658936 -0.86730909 0.21092519 4287402376
1.7299478 -0.89516544 0.23429231 4287665549
1.1984326 1.2022547 0.19277211 4287469466
1.2108157 1.2255297 0.20765585 4287403673
1.237026 1.26206 0.2172479 4287469466
1.2575909 1.2853578 0.22763884 4287403673
1.2817391 1.3270369 0.22227785 4287337880
1.2988874 1.3476529 0.21630369 4287337880
1.293744 1.3583345 0.23898646 4287469464
1.3044816 1.3664479 0.21957467 4287272086
3.3336635 -3.0466399 0.22917733 4286612599
3.3348567 -3.038219 0.22925337 4286612600
3.1408279 -2.7129941 0.23522644 4286941563
3.1561794 -2.7044213 0.24094614 4286941565
1.8200563 -1.2093601 0.27952856 4287204996
1.7494712 -1.1546767 0.26746267 4287007617
1.7540821 -1.1614922 0.26440549 4287073410
1.6579939 -1.0980719 0.24364844 4287270789
1.7313204 -1.1218007 0.2790601 4287270789
1.6370209 -1.070179 0.24213159 4287139203
1.6758021 -1.0691969 0.26298496 4287270789
1.7346373 -1.07227 0.26992193 4287336582
1.7678084 -1.0809171 0.27284962 4287336582
1.803609 -1.0876341 0.28383622 4287270789
1.5890969 -1.0282966 0.24263644 4287204996
1.6190671 -1.0314554 0.24621063 4287270789
1.6687025 -1.0409447 0.25524908 4287270789
1.7026236 -1.0432684 0.24041277 4287599754
1.6700151 -0.96919894 0.24376167 4287402374
1.7658541 -0.94978112 0.2808944 4287270789
1.8183664 -0.94926995 0.28436306 4287205000
1.6784893 -0.90532345 0.24496667 4287073410
1.7194027 -0.90625191 0.24480538 4287270790
1.7724854 -0.92902356 0.26645985 4287270790
1.8105898 -0.93095249 0.27872992 4287270791
1.7306309 -0.89548612 0.24098501 4287533963
1.2443285 1.2580305 0.2436123 4287469466
1.2645106 1.2862105 0.25155362 4287403673
1.287077 1.330857 0.26099363 4287403672
1.2980705 1.3410136 0.27466017 4287403673
1.2924346 1.3574828 0.26631424 4287403414
1.2958401 1.3598554 0.26056871 4287403671
2.0090363 -1.3583906 0.33142501 4287073410
1.9825351 -1.3132714 0.33002079 4287204996
2.0056276 -1.3427196 0.33085948 4287139203
1.8802733 -1.2628311 0.3001492 4287204996
1.9048216 -1.2484487 0.33132103 4287402377
1.8304008 -1.2021062 0.3004618 4287336582
1.8689718 -1.2339113 0.30716354 4287270789
1.9048357 -1.2408454 0.33059481 4287336584
1.7725689 -1.1477783 0.30302846 4287468168
1.8330745 -1.1934167 0.30508247 4287270789
1.7396533 -1.1079342 0.30963179 4287336584
1.7786844 -1.1202564 0.30027273 4287402375
1.8244721 -1.1141238 0.31674474 4287402376
1.8765627 -1.1176668 0.32220048 4287468169
1.9261065 -1.1119188 0.3251749 4287402376
1.6816185 -1.0617043 0.30311748 4287336584
1.7329758 -1.0790759 0.30876228 4287336584
1.7814496 -1.0883002 0.29371202 4287336582
1.8033491 -1.0874403 0.29066828 4287270789
1.9410613 -1.0887984 0.33403066 4287270789
1.6519712 -1.0434611 0.29154643 4287402377
1.8579931 -1.0086629 0.32419306 4287468168
1.789593 -0.94617569 0.29011536 4287270788
1.8231173 -0.97371352 0.30849481 4287402376
1.8628312 -0.96898299 0.31980017 4287402376
1.9223951 -0.97584403 0.32439658 4287533963
1.791464 -0.94204068 0.29041585 4287402374
1.8259753 -0.94100374 0.29250523 4287270789
1.1215024 1.0862855 0.33599073 4287601052
1.1337938 1.1057134 0.33606926 4287666845
1.1560977 1.1305816 0.33542868 4287666845
1.1703311 1.1551156 0.33726054 4287601052
1.2457056 1.2497847 0.33745107 4287337880
1.2526886 1.2724714 0.33522448 4287403673
1.2919387 1.3396534 0.31967068 4287468953
1.3003632 1.3402984 0.30431318 4287403673
1.2976953 1.3604646 0.31415218 4287534489
2.0010953 -1.3490207 0.36251253 4287336584
2.009089 -1.3666155 0.35699397 4287336584
1.9894948 -1.3223751 0.35969004 4287336584
2.0064013 -1.3141285 0.3725872 4287402376
1.9318053 -1.2624869 0.34894422 4287336584
1.9742645 -1.2741089 0.37270713 4287336584
1.8653909 -1.2062387 0.33975491 4287336584
1.9153104 -1.2200068 0.36605543 4287468170
1.9949802 -1.2023506 0.38415933 4287599756
1.8476262 -1.1664762 0.36116713 4287468170
1.8807054 -1.1690193 0.36472371 4287402377
1.9262877 -1.1660185 0.36989024 4287533963
1.9655303 -1.1616396 0.38116953 4287402376
1.790207 -1.1178588 0.35020357 4287402377
1.808633 -1.1169538 0.34354907 4287468170
1.8879505 -1.1361967 0.34399414 4287468170
1.9337027 -1.1245444 0.352303 4287402376
1.9586635 -1.118183 0.36595008 4287402375
1.9330282 -1.0769178 0.3661994 4287402377
1.9650922 -1.0891203 0.36048853 4287468168
1.8466879 -1.0077118 0.34685299 4287533963
1.8746512 -1.0163177 0.3564519 4287467913
1.9138715 -1.0161226 0.36038047 4287468169
1.9672523 -1.0188167 0.38152397 4287402375
1.8086398 -0.97493529 0.34144896 4287468170
1.8786566 -0.98444343 0.3471832 4287533962
1.9234128 -0.9775492 0.35728168 4287468168
1.9616337 -0.98682123 0.38096955 4287533961
1.1203882 1.0884578 0.35333243 4287666589
1.1360649 1.1269104 0.36886001 4287666332
1.1519921 1.1307012 0.37079769 4287666589
1.1409786 1.1598651 0.3818855 4287600282
1.1679428 1.177543 0.36391377 4287535002
1.1992815 1.1973699 0.35474128 4287535259
1.1802143 1.2208769 0.37711748 4287600538
1.2156837 1.2341163 0.36026534 4287469466
1.2458069 1.2498528 0.34224367 4287469466
1.2282535 1.2711505 0.36563513 4287469466
1.2575037 1.2772496 0.35351819 4287469210
1.2841311 1.3279405 0.36219403 4287469209
1.2979521 1.3451782 0.34993103 4287403673
1.293988 1.3577477 0.35418695 4287468696
1.3015758 1.3594474 0.34504536 4287468952
2.0929904 -1.4065076 0.43489495 4287468170
2.0380261 -1.3608719 0.40783212 4287402377
2.0857401 -1.3560135 0.4234556 4287336584
2.0363293 -1.3371794 0.39800841 4287468170
2.0731287 -1.3340862 0.41303727 4287402377
1.994651 -1.2695086 0.40021208 4287468170
2.0419445 -1.2789947 0.4297871 4287336584
2.0674822 -1.2582772 0.43271807 4287336582
1.9212097 -1.2054241 0.39195362 4287533963
1.975843 -1.2136595 0.41071361 4287336584
2.0170007 -1.2270266 0.42024919 4287336583
2.0608563 -1.2182424 0.43015721 4287270790
1.9287263 -1.1805062 0.39210308 4287468170
1.9865873 -1.1679088 0.40102252 4287270790
2.0281301 -1.1718448 0.42218536 4287468169
1.945811 -1.0985672 0.39507675 4287270791
1.9796935 -1.1176804 0.40639725 4287402376
2.0085437 -1.1268826 0.43110606 4287599756
1.898133 -1.0499988 0.39083982 4287270791
1.9288087 -1.0595927 0.39716759 4287402377
1.9784321 -1.070096 0.41825807 4287468170
2.0257113 -1.067167 0.41842291 4287468170
2.0733685 -1.0737882 0.43218723 4287402377
1.9235551 -1.0319406 0.40559018 4287533963
1.9751393 -1.0234284 0.40268779 4287468168
2.0272486 -1.0177836 0.4115355 4287533961
2.0791249 -1.0238421 0.43022609 4287665547
2.1032357 -1.0270069 0.42651376 4287797133
1.9630188 -0.98537821 0.38824767 4287599754
2.01366 -0.99111074 0.39343864 4287665547
2.0751534 -0.99351406 0.43110353 4287994512
1.0867603 1.0419557 0.42368296 4287601052
1.0952355 1.0574027 0.4141092 4287601052
1.1116848 1.0861485 0.4203026 4287666588
1.1225933 1.1247051 0.41418436 4287666075
1.1528249 1.1261637 0.39664274 4287666588
1.1373434 1.1626935 0.41318056 4287666075
1.1577446 1.1904912 0.41784844 4287600282
1.1715558 1.2130376 0.40939245 4287666075
2.165113 -1.4493157 0.46867695 4287402376
2.0933666 -1.4067233 0.44094959 4287402377
2.1258402 -1.4002384 0.44558832 4287402376
2.1803472 -1.4271427 0.46881559 4287402376
2.2101715 -1.4294629 0.47599566 4287336584
2.1290798 -1.3603698 0.46815431 4287402377
2.1712403 -1.3904845 0.46204591 4287402377
2.0820823 -1.3058572 0.47028312 4287402377
2.1090064 -1.3364388 0.45023203 4287336584
2.0318286 -1.2745068 0.44153732 4287270791
2.0778925 -1.2718052 0.46706766 4287336583
2.1061678 -1.2688291 0.47367039 4287336584
2.0230823 -1.2368327 0.44053581 4287270791
2.0745621 -1.2186594 0.46221498 4287468170
2.0488033 -1.1646988 0.46259779 4287533963
2.061867 -1.1750603 0.46060306 4287599756
2.1052852 -1.1560396 0.48146674 4287599756
1.999028 -1.0998032 0.4420087 4287599756
2.0188112 -1.1249175 0.44990078 4287599756
2.0744014 -1.1275197 0.47530356 4287402377
2.1255786 -1.1008151 0.47859308 4287139204
1.945935 -1.0483918 0.4377003 4287797135
1.9651216 -1.0585096 0.44442543 4287468170
2.0241787 -1.079851 0.45810556 4287336584
2.0832477 -1.0692549 0.45251811 4287336583
2.1249416 -1.0654526 0.46968865 4287336582
1.9413565 -1.0336045 0.43851656 4287402377
2.0785351 -1.0204468 0.43973535 4287665806
2.1348083 -1.0360501 0.4617596 4287599754
2.0756741 -0.99373579 0.43713954 4287732112
2.3060334 -0.89510953 0.47889745 4285363036
2.2768824 -0.85625774 0.47465318 4285494618
2.3105114 -0.8550458 0.47367039 4285428825
2.306262 -0.84029567 0.47014865 4285494618
1.0333189 0.96903068 0.46834946 4287732638
1.0490278 0.99231118 0.46879008 4287666845
1.0849526 1.0376128 0.46520856 4287601052
1.0990577 1.0475096 0.47152004 4287601052
1.086693 1.0565406 0.48306993 4287535259
1.1120251 1.0812112 0.4630383 4287600795
1.1270545 1.1236275 0.46557391 4287534746
1.1482131 1.1510248 0.48666835 4287534489
1.1374516 1.1634501 0.4595902 4287534489
1.153746 1.1809279 0.47384843 4287534489
1.1697356 1.2101079 0.47437534 4287534489
2.4954205 -2.3948703 0.5327068 4286875771
2.4786134 -2.37483 0.52366626 4286744185
2.4039767 -2.3025494 0.53150642 4286612598
2.4102495 -2.3016813 0.53288889 4286744184
2.2768726 -2.2073534 0.5108211 4286875770
2.3131104 -2.2229855 0.52279633 4286744185
2.2332661 -2.1536367 0.51649743 4286744185
2.2630651 -2.1914551 0.50257552 4286875770
2.202276 -2.1356587 0.51108611 4286875771
2.2103562 -2.1392686 0.51243359 4286875770
2.352962 -2.1324186 0.52470315 4286875770
2.3573129 -2.1392331 0.52566969 4286809978
2.2503252 -2.0527775 0.5318141 4286875771
2.268029 -2.0689809 0.52520919 4286809977
2.2344759 -1.4999336 0.50686657 4287402376
2.2637408 -1.5012815 0.52388233 4287270790
2.2453551 -1.4763405 0.50469184 4287468169
2.2670138 -1.4776052 0.51882046 4287468170
2.2019308 -1.4102081 0.49364805 4287468170
2.215714 -1.4213268 0.50645018 4287468170
2.1388497 -1.3556145 0.48508647 4287402377
2.166626 -1.3618678 0.5123769 4287468170
2.094378 -1.3134609 0.4889715 4287336584
2.135839 -1.3189847 0.5087837 4287533963
2.1815569 -1.3232267 0.52379882 4287402377
2.0869849 -1.2745308 0.48798412 4287468170
2.121681 -1.2666384 0.50093925 4287533963
2.165468 -1.2630217 0.52817458 4287665549
2.0843234 -1.2219036 0.4886016 4287533963
2.1343215 -1.2194601 0.51191461 4287599756
2.1715696 -1.2333041 0.52921516 4287665549
2.0793936 -1.193256 0.48744124 4287731342
2.1329825 -1.1679344 0.51361817 4287336584
2.1786168 -1.15311 0.52513295 4287270792
2.2050176 -1.1601592 0.53358465 4287270790
2.0893469 -1.1267353 0.48861945 4287139204
2.1330781 -1.1159958 0.49825755 4287073411
2.1816108 -1.1195005 0.51856923 4287336582
2.2217774 -1.1088752 0.52627569 4287336583
2.2998552 -1.096301 0.51268816 4287797133
2.3238463 -1.1342022 0.53130347 4287204996
2.1200466 -1.0681537 0.4898288 4287139203
2.1826694 -1.0878348 0.50658852 4287204996
2.2168598 -1.077006 0.49894676 4287468168
2.2965393 -1.0893645 0.51389354 4287797133
2.2990735 -0.8945294 0.49788767 4285363036
2.309639 -0.89648324 0.48624432 4285363034
2.3788972 -0.90151238 0.52764016 4285429083
2.2857826 -0.87302512 0.49335077 4285363034
2.3242631 -0.86537647 0.49919885 4285494618
2.383009 -0.8812688 0.52886629 4285297240
2.4145703 -0.86536127 0.51766539 4285428826
2.4643302 -0.85775059 0.52809811 4285428827
1.0594356 1.0006583 0.5075621 4287600796
1.078312 1.0294942 0.51235861 4287666332
1.0989697 1.0467744 0.49207401 4287666845
1.0929331 1.0674924 0.52125841 4287600539
1.1089094 1.0777026 0.51675147 4287600796
1.130621 1.1297342 0.52365381 4287469210
1.1495656 1.1408149 0.50193346 4287469466
1.1361116 1.1670636 0.53016651 4287337880
1.1636978 1.1828183 0.5146001 4287403673
1.1730229 1.2124249 0.51814538 4287403416
1.1977189 1.2405546 0.5338642 4287337880
2.494915 -2.3943076 0.54208475 4286809977
2.52052 -2.3976648 0.54420942 4286678392
2.4793749 -2.3706923 0.54472899 4286809977
2.5196834 -2.3902857 0.54649043 4286744185
2.4054606 -2.302357 0.54250228 4286809977
2.413079 -2.3051367 0.5455333 4286809977
2.4687519 -2.3409562 0.55518019 4286744185
2.4049468 -2.2857487 0.55838293 4286678392
2.4076741 -2.2876174 0.55367661 4286809978
2.5166306 -2.2642853 0.57786101 4286941563
2.3043079 -2.202668 0.53579891 4286678392
2.3121803 -2.212903 0.53927064 4286678391
2.4199517 -2.1981106 0.55954528 4286875771
